-1.790962600708008168e+01,-1.789801025390625000e+01,-1.787195968627930043e+01,-1.770144081115723012e+01,-1.768649101257323863e+01,-1.761557579040526988e+01,-1.759633827209473012e+01,-1.760877990722655895e+01,-1.760585784912109020e+01,-1.761424064636230113e+01,-1.753318405151366832e+01,-1.749992179870605113e+01,-1.756964111328125000e+01,-1.742861938476562145e+01,-1.749036979675292969e+01,-1.750858306884765980e+01,-1.741354560852051137e+01,-1.740761566162109020e+01,-1.739988136291503906e+01,-1.738521575927734020e+01,-1.721194267272948863e+01,-1.718651008605957031e+01,-1.722673034667969105e+01,-1.733895874023437855e+01,-1.712107276916503906e+01,-1.713734436035155895e+01,-1.722189140319823863e+01,-1.713725280761719105e+01,-1.710618972778319957e+01,-1.701519584655762074e+01,-1.691269493103026988e+01,-1.690961456298828125e+01,-1.670848274230957031e+01,-1.669821166992187855e+01,-1.687674140930176137e+01,-1.681338310241698863e+01,-1.679763984680176137e+01,-1.672932815551758168e+01,-1.673956489562987926e+01,-1.673601722717285156e+01,-1.661965179443359020e+01,-1.657112312316894887e+01,-1.658078575134276988e+01,-1.639626884460448863e+01,-1.644030570983887074e+01,-1.644117736816405895e+01,-1.643790626525878906e+01,-1.643488121032714844e+01,-1.643918418884276988e+01,-1.645212745666503906e+01
-1.786139106750487926e+01,-1.787301445007323863e+01,-1.784844970703125000e+01,-1.774702453613280895e+01,-1.785040855407714844e+01,-1.768758010864258168e+01,-1.750770950317383168e+01,-1.759138107299805043e+01,-1.757735252380371094e+01,-1.760091209411621094e+01,-1.762412071228026988e+01,-1.750911140441894887e+01,-1.750897789001464844e+01,-1.740932083129883168e+01,-1.741127204895019887e+01,-1.750432205200194957e+01,-1.744952583312987926e+01,-1.741053771972655895e+01,-1.740692138671875000e+01,-1.740719413757323863e+01,-1.727374076843262074e+01,-1.720331001281737926e+01,-1.732288551330566051e+01,-1.739159965515137074e+01,-1.720603370666503906e+01,-1.710941314697265980e+01,-1.714820480346680043e+01,-1.711464691162109020e+01,-1.711322784423828125e+01,-1.709164237976073863e+01,-1.693133544921875000e+01,-1.693373680114746094e+01,-1.676713943481444957e+01,-1.673985481262207031e+01,-1.676274108886719105e+01,-1.684894180297851918e+01,-1.681542396545410156e+01,-1.673179626464844105e+01,-1.673491477966308949e+01,-1.672973442077637074e+01,-1.655357360839844105e+01,-1.655489158630371094e+01,-1.659079551696776988e+01,-1.662395858764648082e+01,-1.643399238586426137e+01,-1.644075393676758168e+01,-1.642994308471680043e+01,-1.643866157531737926e+01,-1.643970108032226918e+01,-1.629720878601073863e+01
-1.787605285644530895e+01,-1.780531883239746094e+01,-1.780819129943848012e+01,-1.774435806274414062e+01,-1.790555381774901988e+01,-1.782088470458984020e+01,-1.754222679138183949e+01,-1.760450553894042969e+01,-1.751609420776366832e+01,-1.751411628723144887e+01,-1.760996246337890980e+01,-1.755522918701171875e+01,-1.756650161743164062e+01,-1.755669403076171875e+01,-1.741036224365234020e+01,-1.740377807617187855e+01,-1.741350746154785156e+01,-1.738203811645508168e+01,-1.741641807556151988e+01,-1.733920860290526988e+01,-1.733849716186523082e+01,-1.721444511413573863e+01,-1.709479904174805043e+01,-1.727747154235839844e+01,-1.734103775024414062e+01,-1.712941551208496094e+01,-1.711183929443359020e+01,-1.710638618469237926e+01,-1.711285781860351918e+01,-1.700685691833496094e+01,-1.701309204101562145e+01,-1.689482688903808949e+01,-1.675356864929198863e+01,-1.672016143798828125e+01,-1.682299613952637074e+01,-1.673631286621094105e+01,-1.671336555480957031e+01,-1.673812675476073863e+01,-1.673256683349609020e+01,-1.673143005371094105e+01,-1.658580207824707031e+01,-1.645223045349121094e+01,-1.641798782348633168e+01,-1.643002700805664062e+01,-1.643008041381835938e+01,-1.644163894653319957e+01,-1.643998146057128906e+01,-1.644225120544433949e+01,-1.644959640502930043e+01,-1.631735801696776988e+01
-1.811623764038085938e+01,-1.781579780578612926e+01,-1.776548576354980113e+01,-1.770551681518555043e+01,-1.772872352600098012e+01,-1.770794105529785156e+01,-1.770521926879883168e+01,-1.760369873046875000e+01,-1.757656097412109020e+01,-1.750844573974609020e+01,-1.753817367553710938e+01,-1.751195526123046875e+01,-1.757126426696776988e+01,-1.761178970336914062e+01,-1.748994636535644887e+01,-1.742794227600098012e+01,-1.735144615173339844e+01,-1.730204582214355113e+01,-1.738320541381835938e+01,-1.742029571533203125e+01,-1.739427757263183949e+01,-1.738856315612792969e+01,-1.711550521850585938e+01,-1.710888290405273082e+01,-1.730020904541015980e+01,-1.729102134704589844e+01,-1.709524917602539062e+01,-1.705178260803223012e+01,-1.701873397827148082e+01,-1.695300483703612926e+01,-1.701347541809082031e+01,-1.701432800292969105e+01,-1.704268455505371094e+01,-1.688694763183594105e+01,-1.695042037963866832e+01,-1.672160339355469105e+01,-1.673652839660644887e+01,-1.673592948913573863e+01,-1.674092483520508168e+01,-1.672421264648437855e+01,-1.640199851989746094e+01,-1.666268348693848012e+01,-1.643153190612792969e+01,-1.661955070495605113e+01,-1.644119453430176137e+01,-1.644231796264648082e+01,-1.643640708923339844e+01,-1.643205070495605113e+01,-1.640154838562012074e+01,-1.638023567199707031e+01
-1.773132514953612926e+01,-1.788059616088866832e+01,-1.771721839904785156e+01,-1.775593185424805043e+01,-1.781771087646484020e+01,-1.773283195495605113e+01,-1.772145843505859020e+01,-1.765264320373535156e+01,-1.761754989624023082e+01,-1.753686332702637074e+01,-1.751321411132812145e+01,-1.750846672058105113e+01,-1.750096130371094105e+01,-1.759486961364746094e+01,-1.763358879089355113e+01,-1.750419425964355113e+01,-1.752882003784180043e+01,-1.731457138061523082e+01,-1.730286788940430043e+01,-1.740257072448730113e+01,-1.742065620422362926e+01,-1.723035812377930043e+01,-1.718317222595214844e+01,-1.711657142639160156e+01,-1.721081352233887074e+01,-1.731144905090332031e+01,-1.713901901245116832e+01,-1.703217506408691051e+01,-1.696086692810058949e+01,-1.678728675842285156e+01,-1.690524291992187855e+01,-1.693157196044921875e+01,-1.678696441650390980e+01,-1.674985504150390980e+01,-1.672133636474609020e+01,-1.681200218200683949e+01,-1.683304405212401988e+01,-1.674378395080566051e+01,-1.665763473510741832e+01,-1.674601936340332031e+01,-1.640098953247069957e+01,-1.647804832458496094e+01,-1.642003059387207031e+01,-1.656842231750487926e+01,-1.643790245056151988e+01,-1.643067359924316051e+01,-1.643476104736328125e+01,-1.643437767028808949e+01,-1.643917274475098012e+01,-1.613814163208008168e+01
-1.804155731201171875e+01,-1.788830184936523082e+01,-1.783537101745605113e+01,-1.782378196716308949e+01,-1.774197769165039062e+01,-1.771516990661621094e+01,-1.771037483215332031e+01,-1.773012733459473012e+01,-1.762117767333984020e+01,-1.757744216918944957e+01,-1.750389099121094105e+01,-1.751156806945801137e+01,-1.751053619384765980e+01,-1.750817298889160156e+01,-1.760250473022460938e+01,-1.761719512939453125e+01,-1.743683052062987926e+01,-1.738644218444823863e+01,-1.724251556396484020e+01,-1.726807785034180043e+01,-1.738588523864746094e+01,-1.723992729187012074e+01,-1.720615959167480113e+01,-1.721016883850098012e+01,-1.719477653503417969e+01,-1.717924690246582031e+01,-1.712561798095703125e+01,-1.711496543884276988e+01,-1.710305023193359020e+01,-1.671033859252930043e+01,-1.679841613769530895e+01,-1.690635490417480113e+01,-1.689710426330566051e+01,-1.682913398742676137e+01,-1.672262573242187855e+01,-1.672559547424316051e+01,-1.673278427124023082e+01,-1.674759864807128906e+01,-1.648396492004394887e+01,-1.639462280273437855e+01,-1.664024353027344105e+01,-1.652603149414062145e+01,-1.643545341491698863e+01,-1.648299026489258168e+01,-1.643065452575683949e+01,-1.643987846374512074e+01,-1.643728637695312145e+01,-1.644075012207030895e+01,-1.645924758911133168e+01,-1.618767356872558949e+01
-1.812792587280273082e+01,-1.801908683776855113e+01,-1.798459815979003906e+01,-1.782678222656250000e+01,-1.782294845581055043e+01,-1.770913505554198863e+01,-1.771146965026855113e+01,-1.766328239440917969e+01,-1.762369155883789062e+01,-1.742531394958496094e+01,-1.743634414672851918e+01,-1.750827789306640980e+01,-1.751176071166991832e+01,-1.751372909545898082e+01,-1.752876472473144887e+01,-1.761544227600098012e+01,-1.749225234985351918e+01,-1.734517669677734020e+01,-1.724076843261719105e+01,-1.713231468200683949e+01,-1.717230987548828125e+01,-1.722566413879394887e+01,-1.722715950012207031e+01,-1.731472015380859020e+01,-1.708083534240723012e+01,-1.700638389587401988e+01,-1.709848022460937855e+01,-1.712970542907714844e+01,-1.683952140808105113e+01,-1.682717895507812145e+01,-1.691414070129394887e+01,-1.690210914611816051e+01,-1.696809959411621094e+01,-1.682742309570312145e+01,-1.672760581970214844e+01,-1.679013061523437855e+01,-1.682760047912598012e+01,-1.674066734313964844e+01,-1.662880897521973012e+01,-1.644257926940917969e+01,-1.640462875366210938e+01,-1.648725891113280895e+01,-1.652877998352051137e+01,-1.641103172302246094e+01,-1.643682861328125000e+01,-1.643914604187012074e+01,-1.643688011169433949e+01,-1.644112586975098012e+01,-1.643701934814453125e+01,-1.616120529174805043e+01
-1.810714912414551137e+01,-1.807872390747069957e+01,-1.794145202636719105e+01,-1.800063896179198863e+01,-1.773013305664062145e+01,-1.765734481811523082e+01,-1.763219833374023082e+01,-1.760484504699707031e+01,-1.760507202148437855e+01,-1.752631568908691051e+01,-1.749973106384276988e+01,-1.750722885131835938e+01,-1.751321601867676137e+01,-1.750810050964355113e+01,-1.750020027160644887e+01,-1.748981857299805043e+01,-1.730896759033203125e+01,-1.730306053161621094e+01,-1.731883239746094105e+01,-1.711872291564941051e+01,-1.715371704101562145e+01,-1.728647994995116832e+01,-1.731647491455078125e+01,-1.727768898010253906e+01,-1.701012992858887074e+01,-1.707419967651366832e+01,-1.711292648315430043e+01,-1.705562400817871094e+01,-1.694249343872069957e+01,-1.689376640319823863e+01,-1.691310119628905895e+01,-1.692376518249512074e+01,-1.676621055603026988e+01,-1.674485778808594105e+01,-1.673054695129394887e+01,-1.674668502807616832e+01,-1.673476028442383168e+01,-1.674363517761230113e+01,-1.647987174987792969e+01,-1.661150741577148082e+01,-1.662260055541991832e+01,-1.641167259216308949e+01,-1.647092437744140980e+01,-1.659455871582030895e+01,-1.641883277893066051e+01,-1.644058418273926137e+01,-1.644343566894530895e+01,-1.644095993041991832e+01,-1.644151878356933949e+01,-1.610306358337401988e+01
-1.810685157775878906e+01,-1.808675003051758168e+01,-1.786306381225585938e+01,-1.787910079956055043e+01,-1.764208030700683949e+01,-1.764732742309569957e+01,-1.763943862915039062e+01,-1.760649299621582031e+01,-1.761360931396484020e+01,-1.757308006286621094e+01,-1.750090217590332031e+01,-1.741119766235351918e+01,-1.749115753173828125e+01,-1.751849174499512074e+01,-1.742885208129883168e+01,-1.741821289062500000e+01,-1.731061935424805043e+01,-1.730988693237305043e+01,-1.730919075012207031e+01,-1.726429557800292969e+01,-1.721678352355957031e+01,-1.717974281311035156e+01,-1.722838592529296875e+01,-1.706864929199219105e+01,-1.692492866516112926e+01,-1.703219413757323863e+01,-1.696560668945312145e+01,-1.696853637695312145e+01,-1.701400375366210938e+01,-1.693900680541991832e+01,-1.690619277954101918e+01,-1.691408157348633168e+01,-1.673259162902832031e+01,-1.673925209045410156e+01,-1.674071884155273082e+01,-1.673608589172362926e+01,-1.673586654663085938e+01,-1.675186157226562145e+01,-1.650640869140625000e+01,-1.643390846252441051e+01,-1.643112182617187855e+01,-1.642970466613769887e+01,-1.643095588684082031e+01,-1.643296241760253906e+01,-1.644113159179687855e+01,-1.644348716735839844e+01,-1.617171669006348012e+01,-1.616992568969726918e+01,-1.617124176025390980e+01,-1.613210487365723012e+01
-1.811837005615234020e+01,-1.804496002197265980e+01,-1.800154495239258168e+01,-1.798295211791991832e+01,-1.782135581970214844e+01,-1.772675132751464844e+01,-1.766478157043457031e+01,-1.760982894897460938e+01,-1.760834884643555043e+01,-1.750956535339355113e+01,-1.750093460083008168e+01,-1.740978813171387074e+01,-1.741411018371582031e+01,-1.743299674987792969e+01,-1.740880584716796875e+01,-1.740425872802734020e+01,-1.737848091125487926e+01,-1.728607177734375000e+01,-1.723577690124512074e+01,-1.721803283691405895e+01,-1.716109275817871094e+01,-1.711237716674805043e+01,-1.717188262939453125e+01,-1.707493972778319957e+01,-1.701061058044433949e+01,-1.704491996765137074e+01,-1.693281745910644887e+01,-1.682573127746582031e+01,-1.698745346069335938e+01,-1.695779609680176137e+01,-1.690846061706542969e+01,-1.691925811767578125e+01,-1.673374176025390980e+01,-1.673425674438476918e+01,-1.677364921569823863e+01,-1.673966407775878906e+01,-1.673995399475098012e+01,-1.663974952697753906e+01,-1.672000122070312145e+01,-1.647377967834473012e+01,-1.643036842346191051e+01,-1.657115173339844105e+01,-1.643087387084960938e+01,-1.643163490295410156e+01,-1.643607330322265980e+01,-1.644122314453125000e+01,-1.644356918334960938e+01,-1.646599960327148082e+01,-1.618300819396973012e+01,-1.613946723937987926e+01
-1.810851478576660156e+01,-1.812061500549316051e+01,-1.800800323486328125e+01,-1.798581314086914062e+01,-1.795425987243651988e+01,-1.768853950500487926e+01,-1.761890792846680043e+01,-1.760391426086426137e+01,-1.760504722595214844e+01,-1.753875160217285156e+01,-1.750703430175780895e+01,-1.746994018554687855e+01,-1.740976333618164062e+01,-1.740751457214355113e+01,-1.733921623229980113e+01,-1.735747909545898082e+01,-1.733873176574707031e+01,-1.723078536987305043e+01,-1.721291732788085938e+01,-1.721155929565430043e+01,-1.723252105712890980e+01,-1.712103843688964844e+01,-1.711967277526855113e+01,-1.700787162780762074e+01,-1.705779457092285156e+01,-1.711135864257812145e+01,-1.710080146789551137e+01,-1.681330490112305043e+01,-1.684901428222655895e+01,-1.690932083129883168e+01,-1.690706253051758168e+01,-1.691850852966308949e+01,-1.677161979675292969e+01,-1.674259757995605113e+01,-1.683224868774414062e+01,-1.673057937622069957e+01,-1.673173713684082031e+01,-1.666271972656250000e+01,-1.644534873962401988e+01,-1.642763519287109020e+01,-1.643238830566405895e+01,-1.667601966857910156e+01,-1.638708114624023082e+01,-1.666972541809082031e+01,-1.642618942260741832e+01,-1.644190788269042969e+01,-1.644716072082519887e+01,-1.646173477172851918e+01,-1.615970993041991832e+01,-1.613750457763671875e+01
-1.812402915954589844e+01,-1.798469352722167969e+01,-1.792156600952148082e+01,-1.791887092590332031e+01,-1.789462471008301137e+01,-1.794829750061035156e+01,-1.758463287353515980e+01,-1.762583541870116832e+01,-1.753385543823241832e+01,-1.751409721374512074e+01,-1.751111984252930043e+01,-1.752311897277832031e+01,-1.743033981323241832e+01,-1.739825630187987926e+01,-1.730417442321776988e+01,-1.724059486389160156e+01,-1.729266166687012074e+01,-1.724522781372069957e+01,-1.720889282226562145e+01,-1.721282196044921875e+01,-1.720430183410644887e+01,-1.720918655395508168e+01,-1.710580062866210938e+01,-1.711606979370116832e+01,-1.711911201477051137e+01,-1.705232238769530895e+01,-1.701001548767089844e+01,-1.698161125183105113e+01,-1.691632270812987926e+01,-1.690873908996582031e+01,-1.692279815673828125e+01,-1.706551170349121094e+01,-1.674023246765137074e+01,-1.674467658996582031e+01,-1.672418785095214844e+01,-1.673435211181640980e+01,-1.674109649658203125e+01,-1.669532203674316051e+01,-1.642081069946289062e+01,-1.643301582336426137e+01,-1.642683410644530895e+01,-1.661415672302246094e+01,-1.645355033874512074e+01,-1.641543197631835938e+01,-1.643858909606933949e+01,-1.644181823730469105e+01,-1.641081237792969105e+01,-1.615652275085448863e+01,-1.614073371887207031e+01,-1.613271713256835938e+01
-1.803835105895996094e+01,-1.798829269409180043e+01,-1.795923233032226918e+01,-1.798084831237792969e+01,-1.790253067016601918e+01,-1.783334159851073863e+01,-1.787315177917480113e+01,-1.756368446350098012e+01,-1.740373992919921875e+01,-1.748660850524901988e+01,-1.751708602905273082e+01,-1.749079704284667969e+01,-1.743429946899414062e+01,-1.724820709228515980e+01,-1.719672393798828125e+01,-1.720765113830566051e+01,-1.719876670837401988e+01,-1.720871162414551137e+01,-1.720826911926269887e+01,-1.721141052246094105e+01,-1.720663070678710938e+01,-1.715471458435058949e+01,-1.711734580993651988e+01,-1.704109191894530895e+01,-1.700220489501953125e+01,-1.691196441650390980e+01,-1.697402191162109020e+01,-1.702273941040039062e+01,-1.693103027343750000e+01,-1.692564201354980113e+01,-1.691930007934569957e+01,-1.692498016357421875e+01,-1.677659606933594105e+01,-1.672734260559082031e+01,-1.677369499206542969e+01,-1.674048995971680043e+01,-1.673637771606444957e+01,-1.669877624511719105e+01,-1.641512298583984020e+01,-1.643734741210937855e+01,-1.642241287231444957e+01,-1.649492454528808949e+01,-1.641912269592285156e+01,-1.643534660339355113e+01,-1.643543624877930043e+01,-1.644244956970214844e+01,-1.637322998046875000e+01,-1.613799285888671875e+01,-1.613337707519530895e+01,-1.613378906250000000e+01
-1.805180931091308949e+01,-1.800116157531737926e+01,-1.801956939697265980e+01,-1.795237159729003906e+01,-1.791602134704589844e+01,-1.793560218811035156e+01,-1.761828231811523082e+01,-1.786061286926269887e+01,-1.744265174865723012e+01,-1.740283966064453125e+01,-1.750160217285155895e+01,-1.748966789245605113e+01,-1.739830589294433949e+01,-1.736209487915039062e+01,-1.720625114440917969e+01,-1.721143913269042969e+01,-1.722029495239258168e+01,-1.720741462707519887e+01,-1.721774291992187855e+01,-1.718951225280762074e+01,-1.704651260375976918e+01,-1.707843971252441051e+01,-1.711890029907226918e+01,-1.702626609802246094e+01,-1.702285194396973012e+01,-1.689488410949707031e+01,-1.680314826965332031e+01,-1.698925018310546875e+01,-1.702777290344237926e+01,-1.689258766174316051e+01,-1.688203811645508168e+01,-1.680855560302734020e+01,-1.672421836853026988e+01,-1.670427894592285156e+01,-1.695661163330078125e+01,-1.661514854431151988e+01,-1.672943115234375000e+01,-1.658857727050780895e+01,-1.642461776733398082e+01,-1.643785858154296875e+01,-1.642058753967285156e+01,-1.653570365905762074e+01,-1.642721748352051137e+01,-1.643415260314941051e+01,-1.643490791320801137e+01,-1.644911575317383168e+01,-1.622064971923828125e+01,-1.614204788208008168e+01,-1.613692474365234020e+01,-1.613626861572265980e+01
-1.812627792358398082e+01,-1.803055763244628906e+01,-1.795506286621094105e+01,-1.790588569641112926e+01,-1.790772628784180043e+01,-1.790506172180176137e+01,-1.780267906188964844e+01,-1.749085426330566051e+01,-1.767685127258301137e+01,-1.742904472351073863e+01,-1.744081687927246094e+01,-1.742160034179687855e+01,-1.741067504882812145e+01,-1.740308952331542969e+01,-1.724710845947265980e+01,-1.720739555358887074e+01,-1.720904922485351918e+01,-1.722301673889160156e+01,-1.714654350280762074e+01,-1.711115455627441051e+01,-1.700678443908691051e+01,-1.706601142883301137e+01,-1.711145019531250000e+01,-1.711529922485351918e+01,-1.701875495910644887e+01,-1.688330650329589844e+01,-1.680148124694823863e+01,-1.696731185913085938e+01,-1.701324081420898082e+01,-1.694382286071776988e+01,-1.680372047424316051e+01,-1.680837631225585938e+01,-1.673056983947753906e+01,-1.674982261657714844e+01,-1.696889114379883168e+01,-1.650192070007323863e+01,-1.676456642150878906e+01,-1.645314216613769887e+01,-1.643741607666015980e+01,-1.643204498291015980e+01,-1.643468475341796875e+01,-1.643776893615723012e+01,-1.643867111206055043e+01,-1.644169616699219105e+01,-1.643866920471191051e+01,-1.643698310852051137e+01,-1.621323776245116832e+01,-1.614160537719726918e+01,-1.613942527770996094e+01,-1.613529968261719105e+01
-1.812623977661133168e+01,-1.819446563720703125e+01,-1.791519927978515980e+01,-1.790739631652832031e+01,-1.790936660766601918e+01,-1.787129783630371094e+01,-1.780404472351073863e+01,-1.759391784667969105e+01,-1.772781562805176137e+01,-1.747160911560058949e+01,-1.740359306335448863e+01,-1.741365051269530895e+01,-1.741744613647460938e+01,-1.732901573181151988e+01,-1.732676315307616832e+01,-1.721645355224609020e+01,-1.713006019592285156e+01,-1.716109085083008168e+01,-1.711770057678223012e+01,-1.710297775268555043e+01,-1.711739540100098012e+01,-1.711028480529785156e+01,-1.710692214965819957e+01,-1.711126518249512074e+01,-1.699500846862792969e+01,-1.681220817565917969e+01,-1.699960708618164062e+01,-1.694268989562987926e+01,-1.693622207641601918e+01,-1.687516975402832031e+01,-1.681624794006348012e+01,-1.680795288085937855e+01,-1.673476028442383168e+01,-1.671907043457030895e+01,-1.695653724670410156e+01,-1.644338035583496094e+01,-1.673301887512207031e+01,-1.643622779846191051e+01,-1.644137382507323863e+01,-1.643578529357910156e+01,-1.643313980102539062e+01,-1.643627929687500000e+01,-1.643466758728026988e+01,-1.643944740295410156e+01,-1.644446754455566051e+01,-1.639103507995605113e+01,-1.612533378601073863e+01,-1.613002586364746094e+01,-1.613918495178223012e+01,-1.614048957824707031e+01
-1.806751251220703125e+01,-1.814782714843750000e+01,-1.799787712097167969e+01,-1.791860008239746094e+01,-1.789600372314453125e+01,-1.793117523193359020e+01,-1.776537704467773082e+01,-1.773266410827637074e+01,-1.763607025146484020e+01,-1.753547668457030895e+01,-1.740083694458008168e+01,-1.736124038696289062e+01,-1.739569091796875000e+01,-1.733598518371582031e+01,-1.730553245544433949e+01,-1.729128837585448863e+01,-1.711125755310058949e+01,-1.710310935974121094e+01,-1.710845565795898082e+01,-1.711374473571776988e+01,-1.710603332519530895e+01,-1.711106872558594105e+01,-1.711980438232421875e+01,-1.702061843872069957e+01,-1.691200447082519887e+01,-1.704575538635253906e+01,-1.691416168212890980e+01,-1.685020637512207031e+01,-1.680415725708008168e+01,-1.680690383911133168e+01,-1.675154876708984020e+01,-1.669083213806151988e+01,-1.672406768798828125e+01,-1.671215629577637074e+01,-1.698159980773926137e+01,-1.673233604431151988e+01,-1.670413589477539062e+01,-1.642701339721680043e+01,-1.644378852844237926e+01,-1.644045829772948863e+01,-1.643698120117187855e+01,-1.643533515930176137e+01,-1.643997001647948863e+01,-1.642965126037598012e+01,-1.644943046569823863e+01,-1.612364959716796875e+01,-1.612319183349609020e+01,-1.627608871459960938e+01,-1.615605545043944957e+01,-1.613431739807128906e+01
-1.801750183105469105e+01,-1.799684524536133168e+01,-1.802926254272460938e+01,-1.788263320922851918e+01,-1.781945800781250000e+01,-1.781015396118164062e+01,-1.770887947082519887e+01,-1.776749229431151988e+01,-1.780063819885253906e+01,-1.750664138793944957e+01,-1.748614311218262074e+01,-1.731632804870605113e+01,-1.726978874206542969e+01,-1.730259513854980113e+01,-1.725900840759276988e+01,-1.729939460754394887e+01,-1.722729682922362926e+01,-1.711511802673339844e+01,-1.710932159423828125e+01,-1.706933975219726918e+01,-1.708389282226562145e+01,-1.706389045715332031e+01,-1.701290512084960938e+01,-1.691710662841796875e+01,-1.703795623779296875e+01,-1.692998504638671875e+01,-1.684538841247558949e+01,-1.681362915039062145e+01,-1.680486488342285156e+01,-1.682568168640137074e+01,-1.661225509643555043e+01,-1.660497093200683949e+01,-1.671995925903319957e+01,-1.673746490478515980e+01,-1.672848510742187855e+01,-1.645640182495116832e+01,-1.646852493286133168e+01,-1.642821311950683949e+01,-1.643990516662598012e+01,-1.643856430053710938e+01,-1.643522644042969105e+01,-1.643710708618164062e+01,-1.643817138671875000e+01,-1.643714714050292969e+01,-1.646075820922851918e+01,-1.614367103576660156e+01,-1.613520240783691051e+01,-1.612358665466308949e+01,-1.612751197814941051e+01,-1.613784599304198863e+01
-1.802042198181151988e+01,-1.801697349548339844e+01,-1.801045608520508168e+01,-1.797529602050780895e+01,-1.786297035217285156e+01,-1.787924575805664062e+01,-1.771050262451171875e+01,-1.773776817321776988e+01,-1.779644775390625000e+01,-1.772817611694335938e+01,-1.753884696960448863e+01,-1.735944747924805043e+01,-1.722016334533691051e+01,-1.720224761962890980e+01,-1.720549774169921875e+01,-1.726935577392578125e+01,-1.724127388000487926e+01,-1.713346481323241832e+01,-1.711821365356444957e+01,-1.700763130187987926e+01,-1.699871253967285156e+01,-1.700459289550780895e+01,-1.709490203857421875e+01,-1.702329635620116832e+01,-1.697349929809569957e+01,-1.684683990478515980e+01,-1.700173950195312145e+01,-1.675483512878417969e+01,-1.672760391235351918e+01,-1.679512977600098012e+01,-1.678708648681640980e+01,-1.667753982543944957e+01,-1.672804260253905895e+01,-1.674513053894042969e+01,-1.677223777770996094e+01,-1.647388648986816051e+01,-1.642353439331055043e+01,-1.644294929504394887e+01,-1.644064521789551137e+01,-1.643753051757812145e+01,-1.636567306518555043e+01,-1.644420623779296875e+01,-1.645249366760253906e+01,-1.630210685729980113e+01,-1.641920089721680043e+01,-1.614593887329101918e+01,-1.615377235412598012e+01,-1.612091064453125000e+01,-1.626217651367187855e+01,-1.612740898132323863e+01
-1.810031890869140980e+01,-1.797066879272460938e+01,-1.792564773559569957e+01,-1.781307601928710938e+01,-1.786896705627441051e+01,-1.785091400146484020e+01,-1.775083541870116832e+01,-1.765352821350098012e+01,-1.774617195129394887e+01,-1.777253150939941051e+01,-1.759659767150878906e+01,-1.761122894287109020e+01,-1.729964447021484020e+01,-1.722083282470703125e+01,-1.720480918884276988e+01,-1.720669937133789062e+01,-1.720651435852051137e+01,-1.722039413452148082e+01,-1.704339408874512074e+01,-1.701299476623535156e+01,-1.700518226623535156e+01,-1.710789108276366832e+01,-1.694137573242187855e+01,-1.692059707641601918e+01,-1.688651847839355113e+01,-1.686206817626953125e+01,-1.696155929565430043e+01,-1.679418373107910156e+01,-1.677376747131348012e+01,-1.681023788452148082e+01,-1.680007743835448863e+01,-1.682234954833984020e+01,-1.673920440673828125e+01,-1.656618881225585938e+01,-1.671664428710937855e+01,-1.649894905090332031e+01,-1.653143119812012074e+01,-1.642697525024414062e+01,-1.643983078002930043e+01,-1.643686485290526988e+01,-1.644722938537598012e+01,-1.636802864074707031e+01,-1.645551872253417969e+01,-1.625094795227051137e+01,-1.637482261657714844e+01,-1.614610862731933949e+01,-1.626570510864258168e+01,-1.613881301879883168e+01,-1.613186836242676137e+01,-1.613810729980469105e+01
-1.796617889404296875e+01,-1.790210342407226918e+01,-1.791127204895019887e+01,-1.789528656005859020e+01,-1.802531051635741832e+01,-1.786005020141601918e+01,-1.771583557128905895e+01,-1.760308456420898082e+01,-1.759010696411133168e+01,-1.769535636901855113e+01,-1.771842956542969105e+01,-1.755227661132812145e+01,-1.746780395507812145e+01,-1.721424865722655895e+01,-1.721595764160155895e+01,-1.720780181884765980e+01,-1.720952987670898082e+01,-1.720182037353515980e+01,-1.710937500000000000e+01,-1.699950599670410156e+01,-1.711005783081055043e+01,-1.696654319763183949e+01,-1.693210792541503906e+01,-1.691958236694335938e+01,-1.685231590270996094e+01,-1.678925704956055043e+01,-1.675680732727051137e+01,-1.678940773010253906e+01,-1.679549217224121094e+01,-1.687554359436035156e+01,-1.682897567749023082e+01,-1.680544281005859020e+01,-1.673267745971680043e+01,-1.674240303039551137e+01,-1.675209808349609020e+01,-1.644061279296875000e+01,-1.643670463562012074e+01,-1.644200897216796875e+01,-1.643835639953612926e+01,-1.643104171752930043e+01,-1.642345619201660156e+01,-1.620087432861328125e+01,-1.634405136108398082e+01,-1.613227081298828125e+01,-1.612763214111328125e+01,-1.620643615722655895e+01,-1.621852111816405895e+01,-1.613476753234862926e+01,-1.613911628723144887e+01,-1.613850212097167969e+01
-1.789661979675292969e+01,-1.783686256408691051e+01,-1.789522743225098012e+01,-1.781535148620605113e+01,-1.794425773620605113e+01,-1.783841705322265980e+01,-1.761248016357421875e+01,-1.764754867553710938e+01,-1.761574554443359020e+01,-1.761013221740723012e+01,-1.769021415710448863e+01,-1.763759231567383168e+01,-1.730719947814941051e+01,-1.723058128356933949e+01,-1.720466995239258168e+01,-1.721341705322265980e+01,-1.721382522583008168e+01,-1.715355110168457031e+01,-1.711490440368651988e+01,-1.707228088378905895e+01,-1.699731445312500000e+01,-1.691866493225098012e+01,-1.691781997680664062e+01,-1.689006423950194957e+01,-1.682120132446289062e+01,-1.672347640991210938e+01,-1.672651672363280895e+01,-1.671022987365723012e+01,-1.670547866821289062e+01,-1.691173171997069957e+01,-1.672090911865234020e+01,-1.667932701110839844e+01,-1.673022460937500000e+01,-1.656868171691894887e+01,-1.669316864013671875e+01,-1.643912124633789062e+01,-1.646999931335448863e+01,-1.644111633300780895e+01,-1.644024658203125000e+01,-1.643769836425780895e+01,-1.633459281921387074e+01,-1.619951248168944957e+01,-1.642721748352051137e+01,-1.617784309387207031e+01,-1.612434196472167969e+01,-1.613609886169433949e+01,-1.610736083984375000e+01,-1.614204406738280895e+01,-1.613334274291991832e+01,-1.613812637329101918e+01
-1.779240417480469105e+01,-1.779531288146973012e+01,-1.784576225280762074e+01,-1.770862388610839844e+01,-1.775076293945312145e+01,-1.779969024658203125e+01,-1.779392623901366832e+01,-1.771119880676269887e+01,-1.766193962097167969e+01,-1.761968231201171875e+01,-1.766420936584473012e+01,-1.781956672668457031e+01,-1.751354217529296875e+01,-1.745155334472655895e+01,-1.729668235778808949e+01,-1.715371322631835938e+01,-1.718268775939941051e+01,-1.711911010742187855e+01,-1.707336997985839844e+01,-1.702659225463866832e+01,-1.691110420227051137e+01,-1.690860366821289062e+01,-1.690917015075683949e+01,-1.690392494201660156e+01,-1.680994606018066051e+01,-1.681329345703125000e+01,-1.679990768432616832e+01,-1.680444335937500000e+01,-1.670836067199707031e+01,-1.664841651916503906e+01,-1.651970672607421875e+01,-1.652436256408691051e+01,-1.673271560668944957e+01,-1.655249977111816051e+01,-1.666134643554687855e+01,-1.660003471374512074e+01,-1.652691078186035156e+01,-1.642766189575194957e+01,-1.644067955017089844e+01,-1.643639373779296875e+01,-1.631356811523437855e+01,-1.626015472412109020e+01,-1.639907455444335938e+01,-1.628024291992187855e+01,-1.611716842651366832e+01,-1.614903259277344105e+01,-1.614840698242187855e+01,-1.613839721679687855e+01,-1.614048004150390980e+01,-1.613383293151855113e+01
-1.773026466369628906e+01,-1.775128364562987926e+01,-1.790738105773926137e+01,-1.784273910522460938e+01,-1.791774177551269887e+01,-1.786215782165526988e+01,-1.775860595703125000e+01,-1.765412902832030895e+01,-1.761954879760741832e+01,-1.760508346557616832e+01,-1.759294891357421875e+01,-1.768567276000976918e+01,-1.753929138183594105e+01,-1.730414390563964844e+01,-1.720612144470214844e+01,-1.714039802551269887e+01,-1.716763877868651988e+01,-1.712993621826171875e+01,-1.703737068176269887e+01,-1.700173950195312145e+01,-1.698345756530762074e+01,-1.691337203979491832e+01,-1.687586402893066051e+01,-1.689205551147460938e+01,-1.682765579223633168e+01,-1.679217147827148082e+01,-1.677011871337890980e+01,-1.681355094909667969e+01,-1.675013160705566051e+01,-1.673102569580078125e+01,-1.655874443054198863e+01,-1.649948883056640980e+01,-1.669249916076660156e+01,-1.660063552856444957e+01,-1.639980506896973012e+01,-1.644188690185546875e+01,-1.643755340576171875e+01,-1.644176101684569957e+01,-1.643331336975098012e+01,-1.643867683410644887e+01,-1.629702377319335938e+01,-1.625551605224609020e+01,-1.625887107849121094e+01,-1.613694381713866832e+01,-1.612646484375000000e+01,-1.616962814331055043e+01,-1.613185882568359020e+01,-1.613876724243164062e+01,-1.613879585266112926e+01,-1.614027214050292969e+01
-1.781643104553223012e+01,-1.777582168579101918e+01,-1.777255630493164062e+01,-1.768956184387207031e+01,-1.789048767089844105e+01,-1.805229187011719105e+01,-1.765733146667480113e+01,-1.758484268188476918e+01,-1.759977531433105113e+01,-1.761871147155762074e+01,-1.757778358459473012e+01,-1.743532562255859020e+01,-1.748726844787598012e+01,-1.749428749084473012e+01,-1.726300621032714844e+01,-1.731234550476073863e+01,-1.713743782043457031e+01,-1.705569839477539062e+01,-1.700485610961914062e+01,-1.701215744018555043e+01,-1.694429588317871094e+01,-1.685497283935546875e+01,-1.682015419006348012e+01,-1.681637763977051137e+01,-1.682104110717773082e+01,-1.672104263305664062e+01,-1.671601295471191051e+01,-1.679283714294433949e+01,-1.672579765319823863e+01,-1.669836235046387074e+01,-1.663311767578125000e+01,-1.653583335876464844e+01,-1.652122116088866832e+01,-1.645339965820312145e+01,-1.676227951049805043e+01,-1.643517303466796875e+01,-1.643381690979003906e+01,-1.644009017944335938e+01,-1.643441963195801137e+01,-1.642693710327148082e+01,-1.638872146606444957e+01,-1.640604019165039062e+01,-1.622627639770508168e+01,-1.628804588317871094e+01,-1.612426376342773082e+01,-1.614364433288573863e+01,-1.613365364074707031e+01,-1.614019584655762074e+01,-1.614105796813964844e+01,-1.613615226745605113e+01
-1.773748779296875000e+01,-1.779158973693848012e+01,-1.774931144714355113e+01,-1.771047973632812145e+01,-1.771463394165039062e+01,-1.785919380187987926e+01,-1.755096054077148082e+01,-1.750919532775878906e+01,-1.750360298156737926e+01,-1.756575965881348012e+01,-1.748250770568848012e+01,-1.741507720947265980e+01,-1.748466110229491832e+01,-1.744682312011719105e+01,-1.731666755676269887e+01,-1.730267524719237926e+01,-1.722011756896973012e+01,-1.702118492126464844e+01,-1.700944900512694957e+01,-1.699005699157714844e+01,-1.691072273254394887e+01,-1.691636848449707031e+01,-1.687899780273437855e+01,-1.692611694335937855e+01,-1.680911254882812145e+01,-1.680215263366698863e+01,-1.679523277282714844e+01,-1.678282165527344105e+01,-1.670372200012207031e+01,-1.672015571594237926e+01,-1.660680198669433949e+01,-1.661116600036621094e+01,-1.677170944213866832e+01,-1.658763122558594105e+01,-1.656581687927246094e+01,-1.649700736999512074e+01,-1.650868606567383168e+01,-1.643083953857421875e+01,-1.643776130676269887e+01,-1.643484878540039062e+01,-1.633419799804687855e+01,-1.623965263366698863e+01,-1.628903198242187855e+01,-1.610032081604003906e+01,-1.612022781372069957e+01,-1.613742637634276988e+01,-1.613801956176758168e+01,-1.613721656799316051e+01,-1.613745880126953125e+01,-1.613777923583984020e+01
-1.771360206604003906e+01,-1.770203590393066051e+01,-1.770652770996094105e+01,-1.769943809509276988e+01,-1.775884819030762074e+01,-1.768977737426758168e+01,-1.750674819946289062e+01,-1.751339530944823863e+01,-1.751345634460448863e+01,-1.749142837524414062e+01,-1.750188827514648082e+01,-1.749370765686035156e+01,-1.745933341979980113e+01,-1.733686256408691051e+01,-1.746127700805664062e+01,-1.721855354309082031e+01,-1.734092712402344105e+01,-1.705888748168944957e+01,-1.701935768127441051e+01,-1.691212463378905895e+01,-1.690907859802246094e+01,-1.691165733337401988e+01,-1.691875648498535156e+01,-1.678941917419433949e+01,-1.673099517822265980e+01,-1.672344207763671875e+01,-1.672937202453612926e+01,-1.671888923645019887e+01,-1.676152420043944957e+01,-1.682482910156250000e+01,-1.665505981445312145e+01,-1.660420608520508168e+01,-1.669150161743164062e+01,-1.659333419799805043e+01,-1.641366767883301137e+01,-1.644371604919433949e+01,-1.640298271179198863e+01,-1.643120765686035156e+01,-1.644029808044433949e+01,-1.642981529235839844e+01,-1.629812622070312145e+01,-1.624452209472655895e+01,-1.626975631713866832e+01,-1.609211921691894887e+01,-1.635893821716308949e+01,-1.613107681274414062e+01,-1.613745117187500000e+01,-1.614225006103515980e+01,-1.613447380065917969e+01,-1.613915634155273082e+01
-1.778057670593262074e+01,-1.770114135742187855e+01,-1.765403747558594105e+01,-1.771825790405273082e+01,-1.772359085083008168e+01,-1.781798553466796875e+01,-1.759825897216796875e+01,-1.753353691101073863e+01,-1.751875495910644887e+01,-1.741314506530762074e+01,-1.742942047119140980e+01,-1.738246154785155895e+01,-1.730376243591308949e+01,-1.731704902648926137e+01,-1.740375137329101918e+01,-1.740695953369140980e+01,-1.713446998596191051e+01,-1.711921310424805043e+01,-1.698016929626464844e+01,-1.692387580871582031e+01,-1.691127967834473012e+01,-1.690843009948730113e+01,-1.690937995910644887e+01,-1.680104827880859020e+01,-1.670720291137694957e+01,-1.671324920654296875e+01,-1.671002578735351918e+01,-1.670525741577148082e+01,-1.660711097717285156e+01,-1.671082115173339844e+01,-1.672078704833984020e+01,-1.662897300720214844e+01,-1.648064613342285156e+01,-1.646941947937012074e+01,-1.642741394042969105e+01,-1.645664024353026988e+01,-1.658273696899414062e+01,-1.644062805175780895e+01,-1.643763923645019887e+01,-1.643862724304198863e+01,-1.644760131835937855e+01,-1.623118400573730113e+01,-1.628501701354980113e+01,-1.629006385803223012e+01,-1.622529983520508168e+01,-1.614296722412109020e+01,-1.615742111206055043e+01,-1.614024353027344105e+01,-1.614269065856933949e+01,-1.613837242126464844e+01
-1.766141700744628906e+01,-1.761244964599609020e+01,-1.760330581665039062e+01,-1.760080909729003906e+01,-1.761659240722655895e+01,-1.775642395019530895e+01,-1.784176254272460938e+01,-1.763311767578125000e+01,-1.760246658325194957e+01,-1.742573738098144887e+01,-1.728464889526366832e+01,-1.727201271057128906e+01,-1.730848312377930043e+01,-1.739208984375000000e+01,-1.740942382812500000e+01,-1.730558204650878906e+01,-1.717879295349121094e+01,-1.698955154418944957e+01,-1.706950569152832031e+01,-1.690137290954589844e+01,-1.691296958923339844e+01,-1.691894721984862926e+01,-1.686331176757812145e+01,-1.682465553283691051e+01,-1.673367118835448863e+01,-1.664135551452637074e+01,-1.669407463073730113e+01,-1.662857818603515980e+01,-1.660265731811523082e+01,-1.652088928222655895e+01,-1.670030403137207031e+01,-1.673774528503417969e+01,-1.656380271911621094e+01,-1.648183822631835938e+01,-1.643442916870116832e+01,-1.645671653747558949e+01,-1.662101554870605113e+01,-1.643128204345703125e+01,-1.643453788757323863e+01,-1.644033622741698863e+01,-1.645959854125976918e+01,-1.636845207214355113e+01,-1.612233734130859020e+01,-1.634944534301758168e+01,-1.616485023498535156e+01,-1.613350868225098012e+01,-1.599218082427979049e+01,-1.610393142700194957e+01,-1.614207267761230113e+01,-1.613618659973144887e+01
-1.761164093017578125e+01,-1.761955261230469105e+01,-1.752959632873535156e+01,-1.750098800659180043e+01,-1.754595756530762074e+01,-1.753379821777344105e+01,-1.779573440551758168e+01,-1.774222946166991832e+01,-1.751109123229980113e+01,-1.743683433532714844e+01,-1.749838256835937855e+01,-1.739262008666991832e+01,-1.731524276733398082e+01,-1.735039520263671875e+01,-1.732815742492676137e+01,-1.731023025512694957e+01,-1.732601165771484020e+01,-1.707464981079101918e+01,-1.684407997131348012e+01,-1.694818305969237926e+01,-1.686638069152832031e+01,-1.690102195739746094e+01,-1.692662620544433949e+01,-1.681548500061035156e+01,-1.681175804138183949e+01,-1.661956787109375000e+01,-1.655471038818359020e+01,-1.661848640441894887e+01,-1.662336349487305043e+01,-1.664242172241210938e+01,-1.666191482543944957e+01,-1.669471359252930043e+01,-1.645327186584473012e+01,-1.644661331176758168e+01,-1.643015289306640980e+01,-1.643626976013183949e+01,-1.642099952697753906e+01,-1.644240760803223012e+01,-1.643947982788085938e+01,-1.644195747375487926e+01,-1.635217666625976918e+01,-1.631706619262694957e+01,-1.612748527526855113e+01,-1.629528617858887074e+01,-1.611694717407226918e+01,-1.614236068725585938e+01,-1.615372085571289062e+01,-1.614538574218750000e+01,-1.613608932495116832e+01,-1.613875579833984020e+01
-1.781957054138183949e+01,-1.761038780212401988e+01,-1.760658264160155895e+01,-1.750779151916503906e+01,-1.750699806213378906e+01,-1.764523506164551137e+01,-1.778622817993164062e+01,-1.772597312927246094e+01,-1.754921340942383168e+01,-1.759894561767578125e+01,-1.749879455566405895e+01,-1.740145301818848012e+01,-1.731851959228515980e+01,-1.731674385070801137e+01,-1.730508041381835938e+01,-1.730683898925780895e+01,-1.731409072875976918e+01,-1.726923751831055043e+01,-1.706609153747558949e+01,-1.686874008178710938e+01,-1.682538414001464844e+01,-1.678609085083008168e+01,-1.687170982360839844e+01,-1.680994224548339844e+01,-1.680303192138671875e+01,-1.667817497253417969e+01,-1.653982353210448863e+01,-1.660170555114746094e+01,-1.650740623474121094e+01,-1.665025901794433949e+01,-1.650173759460448863e+01,-1.646206474304198863e+01,-1.642566108703612926e+01,-1.643914413452148082e+01,-1.643066215515137074e+01,-1.644208335876464844e+01,-1.643805122375487926e+01,-1.643968963623046875e+01,-1.643779563903808949e+01,-1.641080665588378906e+01,-1.643425369262694957e+01,-1.623018074035644887e+01,-1.614269256591796875e+01,-1.612398529052734020e+01,-1.614034461975098012e+01,-1.613559532165526988e+01,-1.614123344421387074e+01,-1.614003181457519887e+01,-1.614238929748535156e+01,-1.613817977905273082e+01
-1.768525314331055043e+01,-1.761636161804198863e+01,-1.761201477050780895e+01,-1.754325103759765980e+01,-1.756455802917480113e+01,-1.783861732482910156e+01,-1.786718368530273082e+01,-1.782598304748535156e+01,-1.782740783691405895e+01,-1.764865875244140980e+01,-1.764180755615234020e+01,-1.736524391174316051e+01,-1.728705978393555043e+01,-1.730132484436035156e+01,-1.731306076049805043e+01,-1.730761909484862926e+01,-1.723867607116698863e+01,-1.720151329040526988e+01,-1.719428062438964844e+01,-1.707960128784180043e+01,-1.692370986938476918e+01,-1.672401046752930043e+01,-1.680411338806151988e+01,-1.684709167480469105e+01,-1.693048477172851918e+01,-1.671633720397948863e+01,-1.663361167907714844e+01,-1.652002525329589844e+01,-1.650952720642089844e+01,-1.651431846618651988e+01,-1.643614006042480113e+01,-1.641770172119140980e+01,-1.642117881774901988e+01,-1.642919349670410156e+01,-1.645808601379394887e+01,-1.643422508239746094e+01,-1.643785858154296875e+01,-1.643643188476562145e+01,-1.643542861938476918e+01,-1.644006347656250000e+01,-1.617632293701171875e+01,-1.620841598510741832e+01,-1.619212532043457031e+01,-1.618944549560546875e+01,-1.611948585510253906e+01,-1.613980293273926137e+01,-1.614125251770019887e+01,-1.613902854919433949e+01,-1.613438034057616832e+01,-1.614886665344237926e+01
-1.755463790893555043e+01,-1.767857551574707031e+01,-1.758478927612305043e+01,-1.751572036743164062e+01,-1.755411911010741832e+01,-1.775178909301758168e+01,-1.793898010253905895e+01,-1.777999305725098012e+01,-1.763630294799805043e+01,-1.739572334289551137e+01,-1.750861358642578125e+01,-1.726957702636719105e+01,-1.721686172485351918e+01,-1.721231460571289062e+01,-1.728300666809082031e+01,-1.721791267395019887e+01,-1.721421432495116832e+01,-1.718317031860351918e+01,-1.722472190856933949e+01,-1.707013702392578125e+01,-1.711608695983887074e+01,-1.713043212890625000e+01,-1.677676582336426137e+01,-1.682226943969726918e+01,-1.681023216247558949e+01,-1.672399711608887074e+01,-1.673711204528808949e+01,-1.651976013183594105e+01,-1.652378654479980113e+01,-1.644581222534180043e+01,-1.641693305969237926e+01,-1.640971183776855113e+01,-1.642321205139160156e+01,-1.640919113159180043e+01,-1.674687194824219105e+01,-1.642156791687012074e+01,-1.644032287597655895e+01,-1.643095397949219105e+01,-1.644241523742676137e+01,-1.621682929992676137e+01,-1.613916015625000000e+01,-1.614186477661133168e+01,-1.610495758056640980e+01,-1.627353858947753906e+01,-1.611717414855957031e+01,-1.614022064208984020e+01,-1.613882446289062145e+01,-1.614073753356933949e+01,-1.613941383361816051e+01,-1.614741134643555043e+01
-1.750078582763671875e+01,-1.768379783630371094e+01,-1.766616058349609020e+01,-1.744272232055664062e+01,-1.746538734436035156e+01,-1.751194190979003906e+01,-1.736037826538085938e+01,-1.759358406066894887e+01,-1.752928352355957031e+01,-1.740233993530273082e+01,-1.732877159118651988e+01,-1.724663734436035156e+01,-1.728973579406737926e+01,-1.711952972412109020e+01,-1.716114044189453125e+01,-1.721325111389160156e+01,-1.717032623291015980e+01,-1.712565422058105113e+01,-1.721359825134276988e+01,-1.729181289672851918e+01,-1.702673721313476918e+01,-1.710519599914551137e+01,-1.672345352172851918e+01,-1.670444297790526988e+01,-1.680989646911621094e+01,-1.675808334350585938e+01,-1.670101547241210938e+01,-1.666709518432616832e+01,-1.650291252136230113e+01,-1.647312927246094105e+01,-1.640440177917480113e+01,-1.641177749633789062e+01,-1.642580795288085938e+01,-1.643332862854003906e+01,-1.641627883911133168e+01,-1.644341278076171875e+01,-1.643895912170410156e+01,-1.643631553649901988e+01,-1.645192909240723012e+01,-1.614500617980957031e+01,-1.613620948791503906e+01,-1.613859748840332031e+01,-1.615279769897460938e+01,-1.629510879516601918e+01,-1.611431503295898082e+01,-1.614023590087890980e+01,-1.613843727111816051e+01,-1.613716316223144887e+01,-1.613741683959960938e+01,-1.610892677307128906e+01
-1.753006362915039062e+01,-1.757135391235351918e+01,-1.754624557495116832e+01,-1.742313957214355113e+01,-1.740353012084960938e+01,-1.738012313842773082e+01,-1.731546211242676137e+01,-1.740348052978515980e+01,-1.742108726501464844e+01,-1.737305450439453125e+01,-1.740264892578125000e+01,-1.743322181701660156e+01,-1.742062759399414062e+01,-1.714733505249023082e+01,-1.711052513122558949e+01,-1.722054290771484020e+01,-1.721801185607910156e+01,-1.717159843444823863e+01,-1.714079666137694957e+01,-1.706872177124023082e+01,-1.693604087829589844e+01,-1.687359237670898082e+01,-1.687285423278808949e+01,-1.669463157653808949e+01,-1.670968437194823863e+01,-1.662056159973144887e+01,-1.662656211853026988e+01,-1.661408424377441051e+01,-1.655100059509276988e+01,-1.651076126098633168e+01,-1.644288444519042969e+01,-1.640886116027832031e+01,-1.642572212219237926e+01,-1.643949508666991832e+01,-1.644493865966796875e+01,-1.648658943176269887e+01,-1.642325210571289062e+01,-1.643972396850585938e+01,-1.617984199523926137e+01,-1.629082298278808949e+01,-1.612773513793944957e+01,-1.613734817504883168e+01,-1.611050033569335938e+01,-1.637687301635741832e+01,-1.613155555725098012e+01,-1.614288520812987926e+01,-1.613548660278319957e+01,-1.614230537414551137e+01,-1.614813232421875000e+01,-1.587824821472167969e+01
-1.752808380126953125e+01,-1.758082771301269887e+01,-1.745019340515137074e+01,-1.743587112426758168e+01,-1.746086883544921875e+01,-1.740744400024414062e+01,-1.745306015014648082e+01,-1.753925895690917969e+01,-1.735191345214844105e+01,-1.720094108581542969e+01,-1.733286094665526988e+01,-1.735436630249023082e+01,-1.723826599121094105e+01,-1.721109008789062145e+01,-1.712707519531250000e+01,-1.726578330993651988e+01,-1.721003532409667969e+01,-1.720636940002441051e+01,-1.715658950805664062e+01,-1.714927101135253906e+01,-1.701267433166503906e+01,-1.719537162780762074e+01,-1.680722045898437855e+01,-1.672732925415039062e+01,-1.669326972961426137e+01,-1.661872673034667969e+01,-1.661877632141112926e+01,-1.661049652099609020e+01,-1.661850166320801137e+01,-1.652423477172851918e+01,-1.646257019042969105e+01,-1.643211174011230113e+01,-1.642558860778808949e+01,-1.643694877624512074e+01,-1.643872070312500000e+01,-1.649083137512207031e+01,-1.653407859802246094e+01,-1.644143104553223012e+01,-1.614804267883301137e+01,-1.621909904479980113e+01,-1.613659095764160156e+01,-1.613804435729980113e+01,-1.614035034179687855e+01,-1.612116622924805043e+01,-1.612795829772948863e+01,-1.614049720764160156e+01,-1.613891983032226918e+01,-1.616000938415526988e+01,-1.587144660949707031e+01,-1.583797359466552912e+01
-1.757380676269530895e+01,-1.756413841247558949e+01,-1.760171890258789062e+01,-1.764839172363280895e+01,-1.774068832397460938e+01,-1.743488883972167969e+01,-1.740117073059082031e+01,-1.737810707092285156e+01,-1.728558921813964844e+01,-1.721040916442871094e+01,-1.718439483642578125e+01,-1.735288429260253906e+01,-1.733683586120605113e+01,-1.721766471862792969e+01,-1.726247978210448863e+01,-1.728780174255371094e+01,-1.718091011047362926e+01,-1.720715522766112926e+01,-1.720949172973633168e+01,-1.710241508483887074e+01,-1.708539581298828125e+01,-1.706469345092773082e+01,-1.694632720947265980e+01,-1.676906585693359020e+01,-1.664049148559569957e+01,-1.658412170410155895e+01,-1.660264778137207031e+01,-1.661578941345214844e+01,-1.659413719177246094e+01,-1.651548957824707031e+01,-1.641466903686523082e+01,-1.636789703369140980e+01,-1.642395401000976918e+01,-1.644195747375487926e+01,-1.642861366271973012e+01,-1.644175720214844105e+01,-1.643316650390625000e+01,-1.644369697570801137e+01,-1.611417007446289062e+01,-1.612008666992187855e+01,-1.613749885559082031e+01,-1.613356399536133168e+01,-1.613892745971680043e+01,-1.613374900817871094e+01,-1.613291931152344105e+01,-1.613477516174316051e+01,-1.612678337097167969e+01,-1.593887042999267933e+01,-1.595985603332520064e+01,-1.588520812988281072e+01
-1.759759902954101918e+01,-1.761597633361816051e+01,-1.752187156677246094e+01,-1.749894523620605113e+01,-1.759632873535155895e+01,-1.756479263305664062e+01,-1.741737747192383168e+01,-1.731737327575683949e+01,-1.745262336730957031e+01,-1.736736488342285156e+01,-1.732826805114746094e+01,-1.753234100341796875e+01,-1.742556190490723012e+01,-1.727239608764648082e+01,-1.732176017761230113e+01,-1.715840530395508168e+01,-1.708795166015625000e+01,-1.714418220520019887e+01,-1.704404640197753906e+01,-1.699198150634765980e+01,-1.705074119567871094e+01,-1.701612281799316051e+01,-1.703153800964355113e+01,-1.685357284545898082e+01,-1.684014511108398082e+01,-1.652497482299805043e+01,-1.652345275878905895e+01,-1.657390594482421875e+01,-1.651201629638671875e+01,-1.650431442260741832e+01,-1.642632675170898082e+01,-1.631566429138183949e+01,-1.640103530883789062e+01,-1.642864036560058949e+01,-1.649914741516112926e+01,-1.642500877380371094e+01,-1.644756507873535156e+01,-1.625013923645019887e+01,-1.612151145935058949e+01,-1.613926124572753906e+01,-1.613682746887207031e+01,-1.613674354553223012e+01,-1.613643264770508168e+01,-1.613045692443848012e+01,-1.613148498535155895e+01,-1.612913322448730113e+01,-1.590584564208984020e+01,-1.602894401550292969e+01,-1.582117176055908025e+01,-1.584441089630126953e+01
-1.751588439941405895e+01,-1.761813545227051137e+01,-1.753119659423828125e+01,-1.746522521972655895e+01,-1.743143463134765980e+01,-1.740385055541991832e+01,-1.739237785339355113e+01,-1.731480598449707031e+01,-1.753183174133301137e+01,-1.760919761657714844e+01,-1.770606231689453125e+01,-1.779850196838378906e+01,-1.742411994934082031e+01,-1.712055587768555043e+01,-1.726898956298828125e+01,-1.724668693542480113e+01,-1.702657508850098012e+01,-1.699950981140137074e+01,-1.700522041320801137e+01,-1.701060485839844105e+01,-1.711909294128417969e+01,-1.702364730834960938e+01,-1.699900054931640980e+01,-1.694192695617676137e+01,-1.685200691223144887e+01,-1.662405204772948863e+01,-1.650631904602051137e+01,-1.650393295288085938e+01,-1.646177291870116832e+01,-1.648298072814941051e+01,-1.653406333923339844e+01,-1.637193298339844105e+01,-1.642029571533203125e+01,-1.643018341064453125e+01,-1.650965690612792969e+01,-1.645395469665526988e+01,-1.644274330139160156e+01,-1.635948753356933949e+01,-1.612301635742187855e+01,-1.613973426818848012e+01,-1.613629531860351918e+01,-1.614580917358398082e+01,-1.613524055480957031e+01,-1.614175987243651988e+01,-1.614810180664062145e+01,-1.612152290344237926e+01,-1.583549880981444957e+01,-1.584035587310791016e+01,-1.582786941528319957e+01,-1.584074020385742010e+01
-1.754685592651366832e+01,-1.760165405273437855e+01,-1.742229843139648082e+01,-1.743470382690430043e+01,-1.735230636596680043e+01,-1.738199424743651988e+01,-1.731981849670410156e+01,-1.749574851989746094e+01,-1.784338569641112926e+01,-1.762237358093262074e+01,-1.782929992675780895e+01,-1.794888687133789062e+01,-1.781785964965819957e+01,-1.715571784973144887e+01,-1.720220947265625000e+01,-1.717888641357421875e+01,-1.705077743530273082e+01,-1.700620079040526988e+01,-1.699441528320312145e+01,-1.700273704528808949e+01,-1.697571372985839844e+01,-1.681657028198241832e+01,-1.690898895263671875e+01,-1.701669883728026988e+01,-1.693777656555176137e+01,-1.671380233764648082e+01,-1.655297851562500000e+01,-1.651286697387694957e+01,-1.640980720520019887e+01,-1.643586158752441051e+01,-1.650870895385741832e+01,-1.653518676757812145e+01,-1.643640136718750000e+01,-1.643872451782226918e+01,-1.646994400024414062e+01,-1.614777946472167969e+01,-1.640106773376464844e+01,-1.611346435546875000e+01,-1.614092826843262074e+01,-1.613771438598633168e+01,-1.604819488525390980e+01,-1.604380989074707031e+01,-1.615980148315430043e+01,-1.601391029357910156e+01,-1.586171054840088068e+01,-1.580643653869629084e+01,-1.583532810211181996e+01,-1.583562469482422053e+01,-1.583146667480468928e+01,-1.585879039764403942e+01
-1.751547813415526988e+01,-1.740697288513183949e+01,-1.750234985351562145e+01,-1.763615608215332031e+01,-1.733134651184082031e+01,-1.722103309631348012e+01,-1.731057548522948863e+01,-1.737680625915526988e+01,-1.779628181457519887e+01,-1.784461021423339844e+01,-1.813658332824707031e+01,-1.780030632019042969e+01,-1.722620201110839844e+01,-1.719110870361328125e+01,-1.717801856994628906e+01,-1.705687332153319957e+01,-1.702057075500487926e+01,-1.703451347351073863e+01,-1.691645240783691051e+01,-1.696325874328612926e+01,-1.702320480346680043e+01,-1.687863540649414062e+01,-1.690865516662598012e+01,-1.693984985351562145e+01,-1.680313682556151988e+01,-1.678790473937987926e+01,-1.669569396972655895e+01,-1.652510643005371094e+01,-1.642834472656250000e+01,-1.651343536376953125e+01,-1.647705459594726918e+01,-1.647924423217773082e+01,-1.642475509643555043e+01,-1.644227600097655895e+01,-1.647514724731444957e+01,-1.615481758117676137e+01,-1.635503387451171875e+01,-1.614085006713866832e+01,-1.613395118713378906e+01,-1.613008689880371094e+01,-1.602611351013183949e+01,-1.591547107696533025e+01,-1.603057289123535156e+01,-1.600762748718262074e+01,-1.582523441314697088e+01,-1.584019279479979936e+01,-1.583982849121093928e+01,-1.584158420562743963e+01,-1.583959102630615057e+01,-1.566127681732177912e+01
-1.743736267089844105e+01,-1.741436958312987926e+01,-1.743356704711914062e+01,-1.751702117919921875e+01,-1.740013313293457031e+01,-1.721475791931151988e+01,-1.731032562255859020e+01,-1.738177490234375000e+01,-1.743446731567383168e+01,-1.754868507385253906e+01,-1.734603881835937855e+01,-1.721331977844237926e+01,-1.718984794616698863e+01,-1.711073875427246094e+01,-1.709805107116698863e+01,-1.711305427551269887e+01,-1.711255073547362926e+01,-1.712037086486816051e+01,-1.694306182861328125e+01,-1.700133514404296875e+01,-1.693512344360351918e+01,-1.691114807128905895e+01,-1.690383911132812145e+01,-1.689765739440917969e+01,-1.682913780212401988e+01,-1.690131759643555043e+01,-1.667699623107910156e+01,-1.658746147155762074e+01,-1.640597152709960938e+01,-1.638368797302246094e+01,-1.642054176330566051e+01,-1.637784385681151988e+01,-1.642835044860839844e+01,-1.637463951110839844e+01,-1.642489624023437855e+01,-1.617304801940917969e+01,-1.621690940856933949e+01,-1.612517356872558949e+01,-1.613728904724121094e+01,-1.613691520690917969e+01,-1.600902557373046875e+01,-1.584735298156737926e+01,-1.589486598968506037e+01,-1.582230472564697088e+01,-1.583861255645751953e+01,-1.584110260009765980e+01,-1.583744621276854936e+01,-1.584953498840332031e+01,-1.580055904388427912e+01,-1.559814739227294922e+01
-1.750794410705566051e+01,-1.747747039794921875e+01,-1.747838592529296875e+01,-1.745885276794433949e+01,-1.736490249633789062e+01,-1.731914710998535156e+01,-1.732184028625487926e+01,-1.715046882629394887e+01,-1.714333152770996094e+01,-1.711275100708008168e+01,-1.712222862243651988e+01,-1.716262626647948863e+01,-1.711655426025390980e+01,-1.707858276367187855e+01,-1.691952323913573863e+01,-1.709529876708984020e+01,-1.708315849304198863e+01,-1.701516151428223012e+01,-1.702995300292969105e+01,-1.699780464172362926e+01,-1.693130683898926137e+01,-1.690811538696289062e+01,-1.691714668273926137e+01,-1.685581779479980113e+01,-1.675179862976073863e+01,-1.686939430236816051e+01,-1.668040275573730113e+01,-1.668955421447753906e+01,-1.641062355041503906e+01,-1.628609275817871094e+01,-1.632475090026855113e+01,-1.630773925781250000e+01,-1.640619850158691051e+01,-1.633976173400878906e+01,-1.644342613220214844e+01,-1.615156745910644887e+01,-1.612443923950194957e+01,-1.613617134094237926e+01,-1.613493728637694957e+01,-1.613022232055664062e+01,-1.611386108398437855e+01,-1.611002159118651988e+01,-1.583928394317626953e+01,-1.583004665374756037e+01,-1.583592987060547053e+01,-1.584663486480713068e+01,-1.579302883148193004e+01,-1.568427658081055043e+01,-1.552240276336669922e+01,-1.553499889373778942e+01
-1.750808715820312145e+01,-1.751587486267089844e+01,-1.750505828857421875e+01,-1.745379829406737926e+01,-1.732627105712890980e+01,-1.731132888793944957e+01,-1.725520706176758168e+01,-1.721988487243651988e+01,-1.729283905029296875e+01,-1.734143829345703125e+01,-1.712501335144042969e+01,-1.710123252868651988e+01,-1.713155937194823863e+01,-1.712655639648437855e+01,-1.692216110229491832e+01,-1.698970794677734020e+01,-1.701079559326171875e+01,-1.700639915466308949e+01,-1.709615135192871094e+01,-1.702196502685546875e+01,-1.690799140930176137e+01,-1.691263389587401988e+01,-1.692490768432616832e+01,-1.670196533203125000e+01,-1.660318756103515980e+01,-1.666488075256348012e+01,-1.670121574401855113e+01,-1.646177291870116832e+01,-1.667163085937500000e+01,-1.625236892700194957e+01,-1.619694328308105113e+01,-1.628015136718750000e+01,-1.632276916503905895e+01,-1.623708534240723012e+01,-1.613246154785155895e+01,-1.631293487548828125e+01,-1.615066146850585938e+01,-1.613839530944823863e+01,-1.608548736572265980e+01,-1.594377708435058949e+01,-1.582393264770507990e+01,-1.581606578826903942e+01,-1.584042167663574041e+01,-1.583518123626708984e+01,-1.586598205566406072e+01,-1.574145603179931996e+01,-1.555875015258789062e+01,-1.551535987854004084e+01,-1.554015159606933949e+01,-1.554174995422362926e+01
-1.751905441284180043e+01,-1.746075439453125000e+01,-1.722997093200683949e+01,-1.739392089843750000e+01,-1.736335754394530895e+01,-1.730825042724609020e+01,-1.731709671020508168e+01,-1.721319007873535156e+01,-1.721094131469726918e+01,-1.730334091186523082e+01,-1.725384521484375000e+01,-1.711804580688476918e+01,-1.712182044982910156e+01,-1.714263534545898082e+01,-1.703335952758789062e+01,-1.700283622741698863e+01,-1.698141670227051137e+01,-1.700665855407714844e+01,-1.705766868591308949e+01,-1.703233146667480113e+01,-1.693529319763183949e+01,-1.687492942810058949e+01,-1.689564514160155895e+01,-1.686999130249023082e+01,-1.662983131408691051e+01,-1.665246963500976918e+01,-1.654129028320312145e+01,-1.647360229492187855e+01,-1.637091255187987926e+01,-1.653625488281250000e+01,-1.621042251586914062e+01,-1.619829368591308949e+01,-1.631577682495116832e+01,-1.624508285522460938e+01,-1.612330055236816051e+01,-1.612212181091308949e+01,-1.613858985900878906e+01,-1.615272903442383168e+01,-1.586955928802490057e+01,-1.582476615905762074e+01,-1.583233642578125000e+01,-1.584368038177490057e+01,-1.584805107116699041e+01,-1.576869297027588068e+01,-1.572266674041748047e+01,-1.555773258209229049e+01,-1.562672996520995916e+01,-1.553252887725830078e+01,-1.556237220764159979e+01,-1.523389244079590021e+01
-1.745180892944335938e+01,-1.738006210327148082e+01,-1.721736526489258168e+01,-1.728462028503417969e+01,-1.731856155395508168e+01,-1.727972602844237926e+01,-1.730880737304687855e+01,-1.727068710327148082e+01,-1.720491409301758168e+01,-1.722703552246094105e+01,-1.711727905273437855e+01,-1.708381843566894887e+01,-1.701636886596680043e+01,-1.699078178405762074e+01,-1.698594093322753906e+01,-1.691646003723144887e+01,-1.689196395874023082e+01,-1.698600959777832031e+01,-1.701269721984862926e+01,-1.699963378906250000e+01,-1.694453239440917969e+01,-1.674143218994140980e+01,-1.670289039611816051e+01,-1.680471992492676137e+01,-1.676018905639648082e+01,-1.677692604064941051e+01,-1.680771446228026988e+01,-1.632940483093262074e+01,-1.632926559448241832e+01,-1.625206565856933949e+01,-1.641379928588866832e+01,-1.621376991271973012e+01,-1.608231544494628906e+01,-1.612057495117187855e+01,-1.613724708557128906e+01,-1.614237022399901988e+01,-1.614253234863280895e+01,-1.614406967163085938e+01,-1.583327293395995916e+01,-1.583851528167724965e+01,-1.580825042724609020e+01,-1.573198413848876953e+01,-1.583465766906737926e+01,-1.554078578948974965e+01,-1.552223682403563920e+01,-1.553677272796631037e+01,-1.554407119750976918e+01,-1.556894779205322088e+01,-1.523083972930908025e+01,-1.523746967315674006e+01
-1.740229415893555043e+01,-1.739796638488769887e+01,-1.738325500488280895e+01,-1.730888938903808949e+01,-1.725379562377930043e+01,-1.721973991394042969e+01,-1.723460960388183949e+01,-1.721761894226073863e+01,-1.720838356018066051e+01,-1.721810531616210938e+01,-1.713958930969237926e+01,-1.712906265258789062e+01,-1.699783325195312145e+01,-1.691623115539551137e+01,-1.690000724792480113e+01,-1.693161582946776988e+01,-1.691006469726562145e+01,-1.689752006530762074e+01,-1.698520851135253906e+01,-1.692110633850098012e+01,-1.689058494567871094e+01,-1.682528305053710938e+01,-1.671064186096191051e+01,-1.671296310424805043e+01,-1.672001266479491832e+01,-1.673252105712890980e+01,-1.682566070556640980e+01,-1.653505134582519887e+01,-1.648833465576171875e+01,-1.638138389587401988e+01,-1.627421569824219105e+01,-1.637636947631835938e+01,-1.612783813476562145e+01,-1.614028167724609020e+01,-1.614284324645996094e+01,-1.607681274414062145e+01,-1.602846336364746094e+01,-1.587003898620604936e+01,-1.583873748779297053e+01,-1.583743000030517933e+01,-1.576642513275145951e+01,-1.556587314605713068e+01,-1.559984207153319957e+01,-1.551798725128174006e+01,-1.552762413024901988e+01,-1.555491638183593928e+01,-1.531416320800781072e+01,-1.524531745910645064e+01,-1.524072170257568004e+01,-1.524323654174805043e+01
-1.741880989074707031e+01,-1.741111373901366832e+01,-1.738786506652832031e+01,-1.725770378112792969e+01,-1.722120285034180043e+01,-1.717567253112792969e+01,-1.711082077026366832e+01,-1.718925094604491832e+01,-1.721285057067871094e+01,-1.721343231201171875e+01,-1.722723007202148082e+01,-1.701600074768066051e+01,-1.683227157592773082e+01,-1.690238952636719105e+01,-1.691885185241698863e+01,-1.700651550292969105e+01,-1.696045112609862926e+01,-1.682639694213866832e+01,-1.684590530395508168e+01,-1.684113883972167969e+01,-1.668547058105469105e+01,-1.678747558593750000e+01,-1.669504737854003906e+01,-1.671543312072753906e+01,-1.665218544006348012e+01,-1.659502983093262074e+01,-1.674838256835937855e+01,-1.654513549804687855e+01,-1.651058769226073863e+01,-1.647100830078125000e+01,-1.612783050537109020e+01,-1.633725738525390980e+01,-1.614451026916503906e+01,-1.614440155029296875e+01,-1.624561500549316051e+01,-1.583301353454590021e+01,-1.581474781036376953e+01,-1.584155368804931996e+01,-1.585107994079590021e+01,-1.574277782440186080e+01,-1.562859344482422053e+01,-1.553617954254150035e+01,-1.554267501831055043e+01,-1.552312088012694957e+01,-1.537356281280517933e+01,-1.533189582824707031e+01,-1.523864364624023082e+01,-1.525748252868651988e+01,-1.518557071685791016e+01,-1.491154479980468928e+01
-1.739595222473144887e+01,-1.742042350769042969e+01,-1.730792236328125000e+01,-1.735777282714844105e+01,-1.722051811218262074e+01,-1.721648788452148082e+01,-1.713851356506348012e+01,-1.720910453796387074e+01,-1.720786094665526988e+01,-1.720906066894530895e+01,-1.719969749450683949e+01,-1.704058647155762074e+01,-1.689076232910155895e+01,-1.694489097595214844e+01,-1.689778327941894887e+01,-1.694387626647948863e+01,-1.682087135314941051e+01,-1.681096839904785156e+01,-1.682805824279785156e+01,-1.654853630065917969e+01,-1.656037902832030895e+01,-1.661794853210448863e+01,-1.659692573547362926e+01,-1.669330024719237926e+01,-1.672106361389160156e+01,-1.661004257202148082e+01,-1.658380508422851918e+01,-1.649720001220703125e+01,-1.642742919921875000e+01,-1.639602088928223012e+01,-1.631259346008301137e+01,-1.612793159484862926e+01,-1.612567138671875000e+01,-1.597505569458007990e+01,-1.600311470031737926e+01,-1.583392620086669922e+01,-1.583958053588867010e+01,-1.585286521911620916e+01,-1.561394500732422053e+01,-1.551800632476806996e+01,-1.555162525177001953e+01,-1.549130249023438033e+01,-1.553561782836914062e+01,-1.524929809570311967e+01,-1.528577804565430043e+01,-1.525786876678466975e+01,-1.525799179077148082e+01,-1.515145492553710938e+01,-1.496256351470947088e+01,-1.496429634094237926e+01
-1.740308380126953125e+01,-1.730158615112305043e+01,-1.721128273010253906e+01,-1.739248466491698863e+01,-1.737675857543944957e+01,-1.715928268432616832e+01,-1.714783287048339844e+01,-1.717842292785644887e+01,-1.716492843627930043e+01,-1.719532394409180043e+01,-1.715597343444823863e+01,-1.711598014831542969e+01,-1.704347419738769887e+01,-1.701549339294433949e+01,-1.693068504333496094e+01,-1.689078521728515980e+01,-1.681226539611816051e+01,-1.681385612487792969e+01,-1.681124114990234020e+01,-1.677128219604491832e+01,-1.679564857482910156e+01,-1.683243370056151988e+01,-1.661588859558105113e+01,-1.658681678771973012e+01,-1.666606140136719105e+01,-1.649436950683594105e+01,-1.654199790954589844e+01,-1.646881294250487926e+01,-1.640388298034667969e+01,-1.632597541809082031e+01,-1.630765914916991832e+01,-1.627550888061523082e+01,-1.606292343139648082e+01,-1.593376064300536932e+01,-1.596518516540526988e+01,-1.583964538574218928e+01,-1.584290313720702947e+01,-1.583409786224365057e+01,-1.552190399169922053e+01,-1.555228042602539062e+01,-1.556973361968993963e+01,-1.526395225524901988e+01,-1.536183166503906072e+01,-1.520439720153808949e+01,-1.527498912811278942e+01,-1.491576766967773082e+01,-1.492827510833740057e+01,-1.489895057678223012e+01,-1.482178401947020951e+01,-1.461798667907715021e+01
